ply
format ascii 1.0
comment VCGLIB generated
element vertex 1212
property float x
property float y
property float z
property float nx
property float ny
property float nz
end_header
4.24894 10.1888 -0.942598 0 0.867757 0.496989 
4.66304 10.1888 -0.942598 0 0.867757 0.496989 
-0 11.9265 -1.7831 0 0.141421 0.98995 
-0.271728 11.9265 -1.7831 0 0.141421 0.98995 
4.66304 11.2424 -1.68537 0 0.141423 0.989949 
4.24894 11.2424 -1.68537 0 0.141422 0.989949 
4.24894 5.38431 1.12738 0 -0.892213 0.451614 
4.66304 7.34287 1.63754 0 -0.0204725 0.99979 
4.24894 7.34287 1.63754 0 -0.0204729 0.99979 
4.66304 8.32997 0.628941 0 0.926505 0.376281 
4.24894 10.312 -1.15761 0 0.867758 0.496987 
4.66304 10.312 -1.15761 0 0.867758 0.496987 
4.66304 10.4351 -1.37262 0 0.867758 0.496988 
2.33152 11.9265 -1.7831 0 0.141421 0.98995 
2.04251 11.9265 -1.7831 0 0.141421 0.98995 
-2.60833 3.20629 -0.297564 0 0 1 
-2.33152 3.20629 -0.297564 0 0 1 
-2.60833 2.7207 -0.297564 0 -0.248944 0.968518 
-2.33152 2.7207 -0.297564 0 -0.240553 0.970636 
4.66304 2.7207 -0.297564 0 -0.370378 0.928881 
-2.33152 -1.66224 -0.928804 0 0.234615 0.972088 
-2.60833 -1.66224 -0.928804 0 0.234615 0.972089 
-2.33152 -2.54721 -0.715214 0 0.0102191 0.999948 
-2.33152 -2.25222 -0.786411 0 0.234615 0.972088 
4.22924 -2.54721 -0.715214 0 0.00384241 0.999993 
4.66304 -2.25222 -0.786411 0 0.234615 0.972088 
4.22924 -2.25222 -0.786411 0 0.234615 0.972088 
-2.60833 -3.84201 -1 0 0 1 
-2.33152 -3.84201 -1 0 0 1 
-2.33152 -3.56834 -1 0 -0.138765 0.990325 
-2.60833 -3.56834 -1 0 -0.133394 0.991063 
-2.60833 -4.11569 -1 0 0 1 
-2.33152 -4.11569 -1 0 0 1 
-2.60833 -4.38937 -1 0 0 1 
-2.33152 -4.38937 -1 0 0 1 
-2.60833 -4.66304 -1 0 0 1 
-2.33152 -4.66304 -1 0 0 1 
4.22924 -4.66304 -1 0 0 1 
4.66304 -4.66304 -1 0 0 1 
-2.60833 -2.80249 -0.786411 0 -0.268642 0.96324 
-2.33152 -2.80249 -0.786411 0 -0.268642 0.96324 
-2.60833 -2.54721 -0.715214 0 0 1 
-2.60833 2.32546 -0.648782 0 -0.664248 0.747513 
-2.33152 2.32546 -0.648782 0 -0.664248 0.747513 
-2.33152 2.52308 -0.473173 0 -0.664248 0.747512 
-2.60833 2.52308 -0.473173 0 -0.664248 0.747513 
-2.60833 2.12784 -0.824391 0 -0.664248 0.747513 
-2.33152 2.12784 -0.824391 0 -0.664248 0.747513 
-0.271727 1.93022 -1 0 -0.3793 0.925274 
2.33152 1.93022 -1 0 -0.392189 0.919885 
-2.60833 5.38431 1.12738 0 -0.892213 0.451614 
-2.33152 5.38431 1.12738 0 -0.892213 0.451614 
-2.60833 5.14389 0.652397 0 -0.892214 0.451614 
-2.33152 5.14389 0.652397 0 -0.892214 0.451614 
-2.33152 4.90346 0.177416 0 -0.892214 0.451614 
-2.60833 4.66304 -0.297564 0 -0.547477 0.83682 
-2.33152 4.66304 -0.297564 0 -0.560449 0.828189 
-2.60833 4.90346 0.177416 0 -0.892214 0.451614 
4.66304 4.90346 0.177416 0 -0.892214 0.451614 
-2.33152 7.34287 1.63754 0 -0.0204729 0.99979 
-2.33152 7.91558 1.64927 0 0.553198 0.83305 
-2.60833 7.91558 1.64927 0 0.538514 0.842617 
-2.60833 6.77016 1.62581 0 -0.0204728 0.99979 
-2.33152 6.77016 1.62581 0 -0.0204728 0.99979 
-2.60833 7.34287 1.63754 0 -0.0204728 0.99979 
-2.60833 6.19744 1.61408 0 -0.0204737 0.99979 
-2.33152 6.19744 1.61408 0 -0.0204737 0.99979 
-2.60833 5.62473 1.60236 0 -0.513586 0.858038 
-2.33152 5.62473 1.60236 0 -0.500444 0.865769 
-2.33152 8.53716 0.118777 0 0.926505 0.376282 
-2.60833 8.32997 0.628941 0 0.926505 0.376282 
-2.33152 8.32997 0.628941 0 0.926505 0.376282 
-2.60833 8.53716 0.118777 0 0.926505 0.376282 
-2.33152 10.0657 -0.727587 0 0.559294 0.82897 
4.24894 8.74435 -0.391387 0 0.736861 0.676044 
4.66304 8.74435 -0.391387 0 0.829104 0.559095 
-2.60833 10.4351 -1.37262 0 0.867757 0.496989 
-2.33152 10.4351 -1.37262 0 0.867757 0.496989 
-2.60833 10.5583 -1.58763 0 0.49338 0.869814 
-2.60833 10.312 -1.15761 0 0.867758 0.496987 
-2.33152 10.312 -1.15761 0 0.867758 0.496987 
-2.60833 10.1888 -0.942598 0 0.867757 0.496989 
-2.33152 10.1888 -0.942598 0 0.867757 0.496989 
-2.60833 10.0657 -0.727587 0 0.55054 0.834809 
-2.60833 11.2424 -1.68537 0 0.141422 0.989949 
-2.60833 10.9003 -1.6365 0 0.141422 0.989949 
-2.33152 10.9003 -1.6365 0 0.141422 0.989949 
-2.33152 10.5583 -1.58763 0 0.48294 0.875653 
4.66304 10.5583 -1.58763 0 0.631269 0.775564 
4.66304 10.9003 -1.6365 0 0.141422 0.989949 
-1 0.75 -0.90803 -1 0 0 
-1 1 -0.916526 -0.723518 0.690305 0 
-1 1 -1 -0.153003 0.0718112 0.985613 
2.7 1 -0.916526 0 1 0 
2.10082 1 -0.916526 0 1 0 
2.4 1 -0.916526 0 1 0 
2.7 -1 -0.916526 0 -1 0 
2.4 -1 -0.916526 0 -1 0 
2.4 -1 -1 0 -0.407224 0.913328 
2.4 1 1 0 0.813616 0.581402 
-0.753385 -0.25 1.61066 0 -0.631393 0.775463 
-0.753385 0 1.81421 0 0 1 
-1 0 1.81421 -0.618037 -0.205915 0.758702 
-1 -0.25 1.61066 -0.524529 -0.537563 0.660223 
2.7 0 1.81421 0 0 1 
2.4 -0.25 1.61066 0 -0.631393 0.775463 
0.312859 0 1.81421 0 -4.26097e-07 1 
-0.013539 0 1.81421 0 -0.0377618 0.999287 
2.70443 2.32546 -0.648782 0 -0.664248 0.747513 
2.70443 4.17746 -0.297564 0 0 1 
3.07733 4.17746 -0.297564 0 0 1 
3.07733 4.66304 -0.297564 0 -0.55269 0.833387 
2.70443 4.66304 -0.297564 0 -0.547477 0.836821 
2.07167 -1.18362 -1 0 0 1 
2.04251 -1.36725 -1 0 0.146812 0.989164 
2.33152 -1.36725 -1 0 0.146829 0.989162 
2.36576 -1.18362 -1 0 0 1 
2.05709 1.69766 -1 0 0 1 
2.34864 1.69766 -1 0 0 1 
2.04251 1.93022 -1 0 -0.377434 0.926037 
-1.3021 -2.25222 -0.786411 0 0.234615 0.972088 
-1.3021 -1.95723 -0.857607 0 0.234615 0.972088 
-1.3021 -3.84201 -1 0 0 1 
-0.97559 -3.84201 -1 0 0 1 
-0.97559 -3.56834 -1 0 -0.126851 0.991922 
-1.3021 -3.56834 -1 0 -0.133394 0.991063 
-1.3021 -4.38937 -1 0 0 1 
-0.97559 -4.38937 -1 0 0 1 
-0.97559 -4.11569 -1 0 0 1 
-1.3021 -4.11569 -1 0 0 1 
-1.3021 -2.80249 -0.786411 0 -0.268642 0.96324 
-0.97559 -2.80249 -0.786411 0 -0.268642 0.96324 
-0.97559 -2.54721 -0.715214 0 -0.0125357 0.999921 
-1.3021 -2.54721 -0.715214 0 -1.41682e-07 1 
-1.3021 -3.31305 -0.928804 0 -0.268642 0.96324 
-0.97559 -3.31305 -0.928804 0 -0.268642 0.96324 
-0.97559 -3.05777 -0.857607 0 -0.268642 0.96324 
-1.3021 -3.05777 -0.857607 0 -0.268642 0.96324 
-0.97559 -1.95723 -0.857607 0 0.234615 0.972089 
-1.3021 -4.66304 -1 0 0 1 
-0.97559 -4.66304 -1 0 0 1 
-1.38662 4.17746 -0.297564 0 0 1 
-1.08691 4.17746 -0.297564 0 0 1 
-1.08691 4.66304 -0.297564 0 -0.539072 0.84226 
-1.38662 3.20629 -0.297564 0 0 1 
-1.08691 3.20629 -0.297564 0 0 1 
-1.08691 3.69187 -0.297564 0 0 1 
-1.38662 3.69187 -0.297564 0 0 1 
-1.08691 2.7207 -0.297564 0 -0.254387 0.967102 
-1.38662 2.7207 -0.297564 0 -0.248944 0.968518 
-1.38662 2.12784 -0.824391 0 -0.664248 0.747513 
-1.08691 2.12784 -0.824391 0 -0.664248 0.747513 
-1.08691 2.32546 -0.648782 0 -0.664247 0.747513 
-1.08691 5.38431 1.12738 0 -0.892213 0.451614 
-1.38662 4.90346 0.177416 0 -0.892213 0.451614 
-1.08691 4.90346 0.177416 0 -0.892213 0.451614 
-1.08691 5.14389 0.652397 0 -0.892213 0.451614 
-1.38662 5.14389 0.652397 0 -0.892214 0.451614 
-1.38662 7.34287 1.63754 0 -0.0204728 0.99979 
-1.08691 7.91558 1.64927 0 0.529027 0.848605 
-1.38662 7.91558 1.64927 0 0.538514 0.842617 
-1.08691 6.19744 1.61408 0 -0.0204737 0.99979 
-1.08691 6.77016 1.62581 0 -0.0204728 0.99979 
-1.38662 6.77016 1.62581 0 -0.0204728 0.99979 
-1.08691 8.53716 0.118777 0 0.926505 0.376282 
-1.38662 8.74435 -0.391387 0 0.741594 0.670849 
-1.38662 8.12277 1.1391 0 0.926505 0.376282 
-1.08691 8.12277 1.1391 0 0.926505 0.376282 
-1.08691 8.32997 0.628941 0 0.926505 0.376282 
-1.38662 9.73536 -0.643537 0 0.246581 0.969122 
-1.08691 9.73536 -0.643537 0 0.246581 0.969122 
-1.38662 9.07469 -0.475437 0 0.246582 0.969122 
-1.08691 9.40502 -0.559487 0 0.246581 0.969122 
-1.38662 9.40502 -0.559487 0 0.246581 0.969122 
-1.38662 10.4351 -1.37262 0 0.867757 0.496989 
-1.08691 10.4351 -1.37262 0 0.867757 0.496989 
-1.08691 10.5583 -1.58763 0 0.50009 0.865973 
-1.38662 10.5583 -1.58763 0 0.49338 0.869814 
-1.38662 10.1888 -0.942598 0 0.867757 0.496989 
-1.08691 10.1888 -0.942598 0 0.867757 0.496989 
-1.38662 10.312 -1.15761 0 0.867758 0.496987 
-1.38662 10.9003 -1.6365 0 0.141422 0.989949 
-1.08691 10.9003 -1.6365 0 0.141422 0.989949 
-1.08691 7.34287 1.63754 0 -0.0204728 0.99979 
-1.38662 5.62473 1.60236 0 -0.513586 0.858038 
-1.08691 5.62473 1.60236 0 -0.521963 0.852968 
-1.38662 6.19744 1.61408 0 -0.0204737 0.99979 
-1.38662 8.32997 0.628941 0 0.926505 0.376282 
-1.38662 8.53716 0.118777 0 0.926505 0.376282 
-1.08691 10.312 -1.15761 0 0.867758 0.496987 
-1.38662 10.0657 -0.727587 0 0.55054 0.834809 
-1.08691 10.0657 -0.727587 0 0.544942 0.838474 
-1.38662 11.2424 -1.68537 0 0.141422 0.989949 
-1.08691 11.5845 -1.73423 0 0.14142 0.98995 
-1.38662 11.5845 -1.73423 0 0.141421 0.98995 
-1.08691 11.9265 -1.7831 0 0.141421 0.98995 
-1.38662 11.9265 -1.7831 0 0.141421 0.98995 
-1.08691 1.93022 -1 0 -0.379255 0.925292 
-0.799733 1.69766 -1 0 0 1 
-1.06518 1.69766 -1 0 0 1 
-0.742539 -1.18362 -1 0 0 1 
-0.987795 -1.18362 -1 0 0 1 
-4.3716 -0.11505 -1 0 0 1 
-4.3716 0.158632 -1 0 0 1 
-4.66304 0.158632 -1 0 0 1 
-4.66304 -0.11505 -1 0 0 1 
-4.3716 0.364723 -1 0 0 1 
-4.66304 0.364723 -1 0 0 1 
-4.3716 -1.15151 -1 0 0 1 
-4.3716 -0.93578 -1 0 0 1 
-4.66304 -0.93578 -1 0 0 1 
-4.66304 -1.15151 -1 0 0 1 
-4.3716 1.31194 -1 0 0 1 
-4.66304 1.31194 -1 0 0 1 
-4.66304 1.10585 -1 0 0 1 
-4.3716 1.10585 -1 0 0 1 
-1.33713 1.25167 -1 0 0 1 
-1.32063 1.02549 -1 0 0 1 
-1.02173 1.23255 -1 0 0 1 
-1.9864 0.830228 -1 0 0 1 
-1.9864 1.07841 -1 0 0 1 
-2.33152 1.10585 -1 0 0 1 
-2.33152 0.838332 -1 0 0 1 
-1.9864 -0.677584 -1 0 0 1 
-2.33152 -0.662256 -1 0 0 1 
-2.33152 -0.93578 -1 0 0 1 
-1.9864 -0.952426 -1 0 0 1 
-1.32063 -0.984536 -1 0 0 1 
-1.31137 -1.17589 -1 0 0 1 
-0.753385 0.25 1.61066 0 0.631393 0.775463 
-0.753385 0.5 1.40711 0 0.631394 0.775462 
-1 0.25 1.61066 -0.504862 0.545018 0.66938 
0.312859 0.25 1.61066 0 0.631393 0.775463 
0.312859 0.5 1.40711 0 0.631394 0.775462 
-0.013539 0.5 1.40711 0 0.631394 0.775462 
2.70443 5.38431 1.12738 0 -0.892213 0.451614 
3.07733 5.38431 1.12738 0 -0.892213 0.451614 
3 0.75 -0.90803 1 0 0 
3 0.5 -0.899535 1 0 0 
3 0.75 -1 0.204213 0 0.978926 
-1 0.25 -0.891039 -1 0 0 
-1 0.5 -0.899535 -1 0 0 
-1 0.5 -1 -0.310609 0 0.950538 
-1 0.25 -1 -0.333412 0 0.942781 
2.7 0.25 1.61066 0 0.631393 0.775463 
2.7 0.5 1.40711 0 0.631394 0.775462 
2.4 0.5 1.40711 0 0.631394 0.775462 
-4.3716 0.838332 -1 0 0 1 
-4.66304 0.838332 -1 0 0 1 
-4.66304 0.570815 -1 0 0 1 
-4.3716 0.570815 -1 0 0 1 
-1.9864 0.364571 -1 0 0 1 
-1.9864 0.582043 -1 0 0 1 
-2.33152 0.570815 -1 0 0 1 
-2.33152 0.364723 -1 0 0 1 
2.70443 8.53716 0.118777 0 0.926505 0.376282 
3.07733 8.74435 -0.391387 0 0.738357 0.67441 
2.70443 8.74435 -0.391387 0 0.741594 0.670849 
3 -0.25 -0.891039 1 0 0 
3 -0.5 -0.899535 1 0 0 
3 -0.5 -1 0.245223 0 0.969467 
-1 -0.75 -0.90803 -1 0 0 
-1 -0.5 -0.899535 -1 0 0 
-1 -0.5 -1 -0.286717 0 0.958015 
-0.753385 -0.75 1.20355 0 -0.631394 0.775462 
-0.753385 -0.5 1.40711 0 -0.631394 0.775462 
-1 -0.5 1.40711 -0.494721 -0.548714 0.673917 
2.7 -0.75 1.20355 0 -0.631394 0.775462 
2.7 -0.5 1.40711 0 -0.631394 0.775462 
2.4 -0.5 1.40711 0 -0.631394 0.775462 
0.312859 -0.75 1.20355 0 -0.631394 0.775462 
0.312859 -0.5 1.40711 0 -0.631394 0.775462 
-0.013539 -0.5 1.40711 0 -0.631394 0.775462 
-0.013539 -0.75 1.20355 0 -0.631394 0.775462 
-4.3716 -0.662256 -1 0 0 1 
-4.3716 -0.388731 -1 0 0 1 
-4.66304 -0.388731 -1 0 0 1 
-4.66304 -0.662256 -1 0 0 1 
-1.9864 -0.127822 -1 0 0 1 
-2.33152 -0.11505 -1 0 0 1 
-2.33152 -0.388732 -1 0 0 1 
-1.9864 -0.402742 -1 0 0 1 
-0.260154 1 0.56111 0 1 0 
-0.013539 1 0.56111 0 1 0 
-0.013539 1 0.414813 0 1 0 
-0.260154 1 0.414813 0 1 0 
3 -0.75 0.719995 1 0 0 
3 -1 0.56111 0.652737 -0.757584 0 
3 -0.75 0.558809 1 0 0 
-0.753385 -1 0.56111 0 -1 0 
-1 -1 0.56111 -0.723519 -0.690304 0 
-0.753385 -1 0.414813 0 -1 0 
0.312859 -1 0.56111 0 -1 0 
-0.013539 -1 0.56111 0 -1 0 
-0.013539 -1 0.414813 0 -1 0 
0.312859 -1 0.414813 0 -1 0 
-1 -0.25 1.03777 -1 0 0 
-1 0 1.19665 -1 0 0 
-1 0 0.990794 -1 0 0 
-1 -0.25 0.846799 -1 0 0 
3 0.25 1.03777 1 0 0 
3 0 1.19665 1 0 0 
3 0 0.990794 1 0 0 
3 0.25 0.846799 1 0 0 
-1 0.75 0.719995 -1 0 0 
-1 1 0.56111 -0.723519 0.690305 0 
-1 0.75 0.558809 -1 0 0 
2.7 1 0.56111 0 1 0 
3 1 0.414813 0.651605 0.758558 0 
2.7 1 0.414813 0 1 0 
2.10082 1 0.56111 0 1 0 
2.4 1 0.56111 0 1 0 
2.4 1 0.414813 0 1 0 
2.10082 1 0.414813 0 1 0 
2.7 -1 0.56111 0 -1 0 
2.4 -1 0.56111 0 -1 0 
2.4 -1 0.414813 0 -1 0 
2.7 -1 0.414813 0 -1 0 
3 0.75 0.719995 1 0 0 
3 0.5 0.87888 1 0 0 
3 0.5 0.702804 1 0 0 
3 0.75 0.558809 1 0 0 
-1 0.25 1.03777 -1 0 0 
-1 0.5 0.87888 -1 0 0 
-1 0.5 0.702804 -1 0 0 
-1 0.25 0.846799 -1 0 0 
3 -0.25 1.03777 1 0 0 
3 -0.5 0.87888 1 0 0 
3 -0.5 0.702804 1 0 0 
3 -0.25 0.846799 1 0 0 
-1 -0.75 0.719995 -1 0 0 
-1 -0.5 0.87888 -1 0 0 
-1 -0.5 0.702804 -1 0 0 
-1 -0.75 0.558809 -1 0 0 
-0.260154 1 -0.020242 0 1 0 
-0.013539 1 -0.020242 0 1 0 
-0.013539 1 -0.16526 0 1 0 
-0.260154 1 -0.16526 0 1 0 
3 -0.75 0.079475 1 0 0 
3 -0.75 -0.080303 1 0 0 
-0.753385 -1 -0.020242 0 -1 0 
-1 -1 -0.020242 -0.723519 -0.690304 0 
-0.753385 -1 -0.16526 0 -1 0 
0.312859 -1 -0.020242 0 -1 0 
-0.013539 -1 -0.020242 0 -1 0 
-0.013539 -1 -0.16526 0 -1 0 
0.312859 -1 -0.16526 0 -1 0 
-1 -0.25 0.278908 -1 0 0 
-1 0 0.378625 -1 0 0 
-1 0 0.174569 -1 0 0 
-1 -0.25 0.089612 -1 0 0 
3 0.25 0.278908 1 0 0 
3 0 0.378625 1 0 0 
3 0 0.174569 1 0 0 
3 0.25 0.089612 1 0 0 
-1 0.75 0.079475 -1 0 0 
-1 0.75 -0.080303 -1 0 0 
2.7 1 -0.020242 0 1 0 
3 1 -0.020242 0.652737 0.757584 0 
2.7 1 -0.16526 0 1 0 
2.10082 1 -0.020242 0 1 0 
2.4 1 -0.020242 0 1 0 
2.4 1 -0.16526 0 1 0 
2.10082 1 -0.16526 0 1 0 
2.7 -1 -0.020242 0 -1 0 
2.4 -1 -0.020242 0 -1 0 
2.4 -1 -0.16526 0 -1 0 
2.7 -1 -0.16526 0 -1 0 
3 0.75 0.079475 1 0 0 
3 0.5 0.179192 1 0 0 
3 0.5 0.004654 1 0 0 
3 0.75 -0.080303 1 0 0 
-1 0.25 0.278908 -1 0 0 
-1 0.5 0.179192 -1 0 0 
-1 0.5 0.004654 -1 0 0 
-1 0.25 0.089612 -1 0 0 
3 -0.25 0.278908 1 0 0 
3 -0.5 0.179192 1 0 0 
3 -0.5 0.004654 1 0 0 
3 -0.25 0.089612 1 0 0 
-1 -0.75 0.079475 -1 0 0 
-1 -0.5 0.179192 -1 0 0 
-1 -0.5 0.004654 -1 0 0 
-1 -0.75 -0.080303 -1 0 0 
-0.260154 1 -0.540893 0 1 0 
-0.013539 1 -0.540893 0 1 0 
-0.013539 1 -0.666104 0 1 0 
-0.260154 1 -0.666104 0 1 0 
3 -0.75 -0.494167 1 0 0 
3 -1 -0.540893 0.652738 -0.757583 0 
3 -0.75 -0.632121 1 0 0 
-0.753385 -1 -0.540893 0 -1 0 
-1 -1 -0.540893 -0.723519 -0.690305 0 
-1 -1 -0.666104 -0.674173 -0.738573 0 
-0.753385 -1 -0.666104 0 -1 0 
0.312859 -1 -0.540893 0 -1 0 
-0.013539 -1 -0.540893 0 -1 0 
-0.013539 -1 -0.666104 0 -1 0 
0.312859 -1 -0.666104 0 -1 0 
-1 -0.25 -0.400714 -1 0 0 
-1 0 -0.353987 -1 0 0 
-1 0 -0.530172 -1 0 0 
-1 -0.25 -0.564155 -1 0 0 
3 0.25 -0.400714 1 0 0 
3 0 -0.353987 1 0 0 
3 0 -0.530172 1 0 0 
3 0.25 -0.564155 1 0 0 
-1 0.75 -0.494167 -1 0 0 
-1 0.75 -0.632121 -1 0 0 
2.7 1 -0.540893 0 1 0 
3 1 -0.540893 0.652737 0.757584 0 
2.7 1 -0.666104 0 1 0 
2.10082 1 -0.540893 0 1 0 
2.4 1 -0.540893 0 1 0 
2.4 1 -0.666104 0 1 0 
2.10082 1 -0.666104 0 1 0 
2.7 -1 -0.540893 0 -1 0 
2.4 -1 -0.540893 0 -1 0 
2.4 -1 -0.666104 0 -1 0 
2.7 -1 -0.666104 0 -1 0 
3 0.75 -0.494167 1 0 0 
3 0.5 -0.44744 1 0 0 
3 0.5 -0.598138 1 0 0 
3 0.75 -0.632121 1 0 0 
-1 0.25 -0.400714 -1 0 0 
-1 0.5 -0.44744 -1 0 0 
-1 0.5 -0.598138 -1 0 0 
-1 0.25 -0.564155 -1 0 0 
3 -0.25 -0.400714 1 0 0 
3 -0.5 -0.44744 1 0 0 
3 -0.5 -0.598138 1 0 0 
3 -0.25 -0.564155 1 0 0 
-1 -0.75 -0.494167 -1 0 0 
-1 -0.5 -0.44744 -1 0 0 
-1 -0.5 -0.598138 -1 0 0 
-1 -0.75 -0.632121 -1 0 0 
0.903049 4.17746 -0.297564 0 0 1 
1.17548 4.17746 -0.297564 0 0 1 
0.903049 4.66304 -0.297564 0 -0.547477 0.836821 
0.903049 3.69187 -0.297564 0 0 1 
1.17548 3.69187 -0.297564 0 0 1 
0.903049 -1.95723 -0.857607 0 0.234615 0.972088 
1.17548 -1.95723 -0.857607 0 0.234615 0.972088 
1.17548 -1.66224 -0.928804 0 0.234615 0.972089 
0.903049 -3.84201 -1 0 0 1 
1.17548 -3.84201 -1 0 0 1 
1.17548 -3.56834 -1 0 -0.134728 0.990883 
0.903049 -3.56834 -1 0 -0.133394 0.991063 
0.903049 -4.11569 -1 0 0 1 
1.17548 -4.11569 -1 0 0 1 
0.903049 -2.80249 -0.786411 0 -0.268642 0.96324 
1.17548 -2.80249 -0.786411 0 -0.268642 0.96324 
0.903049 -3.05777 -0.857607 0 -0.268642 0.96324 
1.17548 -3.05777 -0.857607 0 -0.268642 0.96324 
0.903049 2.52308 -0.473173 0 -0.664248 0.747512 
1.17548 2.52308 -0.473173 0 -0.664248 0.747513 
1.17548 2.7207 -0.297564 0 -0.245687 0.969349 
0.903049 2.7207 -0.297564 0 -0.248944 0.968518 
0.903049 2.32546 -0.648782 0 -0.664248 0.747513 
1.17548 2.32546 -0.648782 0 -0.664248 0.747513 
1.17548 5.38431 1.12738 0 -0.892213 0.451614 
1.17548 5.62473 1.60236 0 -0.508517 0.861052 
0.903049 5.14389 0.652397 0 -0.892214 0.451614 
1.17548 5.14389 0.652397 0 -0.892214 0.451614 
0.903049 5.38431 1.12738 0 -0.892213 0.451614 
1.17548 7.91558 1.64927 0 0.544206 0.838952 
0.903048 7.91558 1.64927 0 0.538514 0.842617 
0.903049 6.77016 1.62581 0 -0.0204728 0.99979 
1.17548 6.77016 1.62581 0 -0.0204728 0.99979 
1.17548 7.34287 1.63754 0 -0.0204728 0.99979 
0.903049 7.34287 1.63754 0 -0.0204728 0.99979 
0.903048 8.32997 0.628941 0 0.926505 0.376282 
1.17548 8.32997 0.628941 0 0.926505 0.376282 
1.17548 8.53716 0.118777 0 0.926505 0.376282 
0.903048 8.53716 0.118777 0 0.926505 0.376282 
0.903048 9.73536 -0.643537 0 0.246581 0.969122 
1.17548 9.73536 -0.643537 0 0.246581 0.969122 
1.17548 10.0657 -0.727587 0 0.55392 0.83257 
0.903048 10.0657 -0.727587 0 0.55054 0.834809 
0.903048 9.40502 -0.559487 0 0.246581 0.969122 
1.17548 9.40502 -0.559487 0 0.246581 0.969122 
0.903048 10.4351 -1.37262 0 0.867757 0.496989 
1.17548 10.4351 -1.37262 0 0.867757 0.496989 
1.17548 10.5583 -1.58763 0 0.489342 0.872092 
1.17548 11.5845 -1.73423 0 0.14142 0.98995 
0.903048 11.5845 -1.73423 0 0.141421 0.98995 
0.903049 3.20629 -0.297564 0 0 1 
1.17548 3.20629 -0.297564 0 0 1 
0.903049 -2.54721 -0.715214 0 -1.61522e-07 1 
1.17548 -2.54721 -0.715214 0 0.00254453 0.999997 
1.17548 -2.25222 -0.786411 0 0.234615 0.972088 
0.903049 -2.25222 -0.786411 0 0.234615 0.972088 
0.903049 -4.38937 -1 0 0 1 
1.17548 -4.38937 -1 0 0 1 
0.903049 -4.66304 -1 0 0 1 
1.17548 -4.66304 -1 0 0 1 
0.903049 -3.31305 -0.928804 0 -0.268642 0.96324 
1.17548 -3.31305 -0.928804 0 -0.268642 0.96324 
0.903049 2.12784 -0.824391 0 -0.664248 0.747513 
1.17548 2.12784 -0.824391 0 -0.664248 0.747513 
0.903049 4.90346 0.177416 0 -0.892214 0.451614 
1.17548 4.66304 -0.297564 0 -0.552511 0.833506 
0.903049 5.62473 1.60236 0 -0.513586 0.858038 
1.17548 6.19744 1.61408 0 -0.0204737 0.99979 
0.903049 6.19744 1.61408 0 -0.0204737 0.99979 
0.903048 8.12277 1.1391 0 0.926505 0.376282 
1.17548 8.12277 1.1391 0 0.926505 0.376282 
0.903048 9.07469 -0.475437 0 0.246582 0.969122 
1.17548 9.07469 -0.475437 0 0.246582 0.969122 
0.903048 10.1888 -0.942598 0 0.867757 0.496989 
1.17548 10.1888 -0.942598 0 0.867757 0.496989 
1.17548 10.312 -1.15761 0 0.867758 0.496987 
0.903048 10.312 -1.15761 0 0.867758 0.496987 
1.17548 11.2424 -1.68537 0 0.141422 0.989949 
0.903048 11.2424 -1.68537 0 0.141422 0.989949 
1.17548 10.9003 -1.6365 0 0.141422 0.989949 
1.50247 1 1 0 0.813616 0.581402 
1.50247 -1 -0.916526 0 -1 0 
1.2033 -1 -0.916526 0 -1 0 
1.2033 -1 -1 0 -0.415829 0.909443 
0.903049 -1.66224 -0.928804 0 0.234615 0.972088 
1.17548 11.9265 -1.7831 0 0.141421 0.98995 
0.903048 11.9265 -1.7831 0 0.141421 0.98995 
0.921277 1 -0.916526 0 1 0 
1.2033 1 -0.916526 0 1 0 
1.2033 1 -1 0 0.332843 0.942982 
0.912163 -1.18362 -1 0 0 1 
0.903049 -1.36725 -1 0 0.146813 0.989164 
1.17548 -1.36725 -1 0 0.146819 0.989163 
1.18939 -1.18362 -1 0 0 1 
0.907606 1.69766 -1 0 0 1 
1.18244 1.69766 -1 0 0 1 
1.17548 1.93022 -1 0 -0.380887 0.924621 
0.903049 1.93022 -1 0 -0.377434 0.926036 
1.50247 0.5 1.40711 0 0.631394 0.775462 
1.2033 0.5 1.40711 0 0.631394 0.775462 
1.50247 -0.75 1.20355 0 -0.631394 0.775462 
1.50247 -0.5 1.40711 0 -0.631394 0.775462 
1.2033 -0.5 1.40711 0 -0.631394 0.775462 
1.50247 -1 0.56111 0 -1 0 
1.2033 -1 0.56111 0 -1 0 
1.2033 -1 0.414813 0 -1 0 
1.50247 -1 0.414813 0 -1 0 
0.921277 1 0.56111 0 1 0 
1.2033 1 0.56111 0 1 0 
1.2033 1 0.414813 0 1 0 
0.921277 1 0.414813 0 1 0 
1.50247 -1 -0.020242 0 -1 0 
1.2033 -1 -0.020242 0 -1 0 
1.2033 -1 -0.16526 0 -1 0 
1.50247 -1 -0.16526 0 -1 0 
0.921277 1 -0.020242 0 1 0 
1.2033 1 -0.020242 0 1 0 
1.2033 1 -0.16526 0 1 0 
0.921277 1 -0.16526 0 1 0 
1.50247 -1 -0.540893 0 -1 0 
1.2033 -1 -0.540893 0 -1 0 
1.2033 -1 -0.666104 0 -1 0 
1.50247 -1 -0.666104 0 -1 0 
0.921277 1 -0.540893 0 1 0 
1.2033 1 -0.540893 0 1 0 
1.2033 1 -0.666104 0 1 0 
0.921277 1 -0.666104 0 1 0 
0.921277 -1 -0.916526 0 -1 0 
0.639258 -1 -0.916526 0 -1 0 
0.921277 -1 -1 0 -0.415791 0.90946 
0.921277 -0.25 1.61066 0 -0.631393 0.775463 
0.639258 -0.25 1.61066 0 -0.631393 0.775463 
0.921277 0.25 1.61066 0 0.631393 0.775463 
0.921277 0.5 1.40711 0 0.631394 0.775462 
0.639258 0.5 1.40711 0 0.631394 0.775462 
0.921277 -0.75 1.20355 0 -0.631394 0.775462 
0.921277 -0.5 1.40711 0 -0.631394 0.775462 
0.639258 -0.5 1.40711 0 -0.631394 0.775462 
0.639258 -0.75 1.20355 0 -0.631394 0.775462 
0.921277 -1 0.56111 0 -1 0 
0.639258 -1 0.56111 0 -1 0 
0.639258 -1 0.414813 0 -1 0 
0.921277 -1 0.414813 0 -1 0 
0.921277 -1 -0.020242 0 -1 0 
0.639258 -1 -0.020242 0 -1 0 
0.639258 -1 -0.16526 0 -1 0 
0.921277 -1 -0.16526 0 -1 0 
0.921277 -1 -0.540893 0 -1 0 
0.639258 -1 -0.540893 0 -1 0 
0.639258 -1 -0.666104 0 -1 0 
0.921277 -1 -0.666104 0 -1 0 
0.630613 4.17746 -0.297564 0.000170258 0.000110554 1 
0.315307 4.66304 -0.297564 0 -0.547477 0.836821 
0.315307 4.17746 -0.297564 0 0.000291374 1 
0 3.69093 -0.29721 0.00118107 0.0114014 0.999934 
0.064301 3.64421 -0.29721 0.0306541 0.00631143 0.99951 
0.630613 3.69187 -0.297564 0.00035797 2.26133e-05 1 
0.315307 -1.66224 -0.928804 0 0.234615 0.972089 
0.315307 -3.84201 -1 0 0 1 
0.630613 -3.84201 -1 0 0 1 
0.630613 -3.56834 -1 0 -0.130098 0.991501 
0.315307 -3.56834 -1 0 -0.133394 0.991063 
0.315307 -4.11569 -1 0 0 1 
0.630613 -4.11569 -1 0 0 1 
0.315307 -2.80249 -0.786411 0 -0.268642 0.96324 
0.630613 -2.80249 -0.786411 0 -0.268642 0.96324 
0.315307 -3.05777 -0.857607 0 -0.268642 0.96324 
0.630613 -3.05777 -0.857607 0 -0.268642 0.96324 
0.315307 2.52308 -0.473173 0 -0.664248 0.747512 
0.630613 2.52308 -0.473173 0 -0.664248 0.747513 
0.315307 2.7207 -0.297564 0 -0.248944 0.968518 
0.630613 2.32546 -0.648782 0 -0.664248 0.747513 
0.315307 5.38431 1.12738 0 -0.892213 0.451614 
0.630613 5.38431 1.12738 0 -0.892213 0.451614 
0.315307 5.62473 1.60236 0 -0.513586 0.858038 
0.315307 5.14389 0.652397 0 -0.892214 0.451614 
0.630613 5.14389 0.652397 0 -0.892214 0.451614 
0.315307 7.34287 1.63754 0 -0.0204728 0.99979 
0.630613 7.34287 1.63754 0 -0.0204728 0.99979 
0.630613 7.91558 1.64927 0 0.52436 0.851497 
0.315307 6.77016 1.62581 0 -0.0204728 0.99979 
0.630613 6.77016 1.62581 0 -0.0204729 0.99979 
0.630613 8.53716 0.118777 0 0.926505 0.376282 
0.630613 8.32997 0.628941 0 0.926505 0.376282 
0.315306 8.53716 0.118777 0 0.926505 0.376282 
0.315306 9.73536 -0.643537 0 0.246581 0.969122 
0.630613 9.73536 -0.643537 0 0.246581 0.969122 
0.315306 10.0657 -0.727587 0 0.55054 0.834809 
0.315306 9.40502 -0.559487 0 0.246581 0.969122 
0.630613 9.40502 -0.559487 0 0.246581 0.969122 
0.315306 10.4351 -1.37262 0 0.867757 0.496989 
0.630613 10.4351 -1.37262 0 0.867757 0.496989 
0.315306 10.312 -1.15761 0 0.867758 0.496987 
0.630613 11.5845 -1.73423 0 0.14142 0.98995 
0.315306 11.5845 -1.73423 0 0.141421 0.98995 
0.03974 3.56862 -0.29721 0.0942379 -0.164309 0.981897 
0.630613 3.20629 -0.297564 0.000159641 -0.00019324 1 
0.630613 2.7207 -0.297564 0 -0.257072 0.966392 
0.315307 3.20629 -0.297564 0 0 1 
0.630613 -2.25222 -0.786411 0 0.234615 0.972088 
0.630613 -1.95723 -0.857607 0 0.234615 0.972088 
0.315307 -1.95723 -0.857607 0 0.234615 0.972089 
0.315307 -2.54721 -0.715214 0 -1.28825e-07 1 
0.630613 -2.54721 -0.715214 0 -0.00630252 0.99998 
0.315307 -2.25222 -0.786411 0 0.234615 0.972088 
0.315307 -4.38937 -1 0 0 1 
0.630613 -4.38937 -1 0 0 1 
0.315307 -4.66304 -1 0 0 1 
0.630613 -4.66304 -1 0 0 1 
0.315307 -3.31305 -0.928804 0 -0.268642 0.96324 
0.630613 -3.31305 -0.928804 0 -0.268642 0.96324 
0.315307 2.12784 -0.824391 0 -0.664248 0.747513 
0.630613 2.12784 -0.824391 0 -0.664248 0.747513 
0.315307 2.32546 -0.648782 0 -0.664247 0.747513 
0.315307 4.90346 0.177416 0 -0.892214 0.451614 
0.630613 4.90346 0.177416 0 -0.892213 0.451614 
0.630613 4.66304 -0.297564 0 -0.53493 0.844897 
0.315307 6.19744 1.61408 0 -0.0204737 0.99979 
0.630613 6.19744 1.61408 0 -0.0204737 0.99979 
0.630613 5.62473 1.60236 0 -0.526052 0.850452 
0.315306 8.12277 1.1391 0 0.926505 0.376282 
0.630613 8.12277 1.1391 0 0.926505 0.376282 
0.315306 8.32997 0.628941 0 0.926505 0.376282 
0.315306 7.91558 1.64927 0 0.538514 0.842617 
0.315306 9.07469 -0.475437 0 0.246582 0.969122 
0.630613 9.07469 -0.475437 0 0.246582 0.969122 
0.315306 8.74435 -0.391387 0 0.741593 0.67085 
0.630613 8.74435 -0.391387 0 0.749169 0.662378 
0.315306 10.1888 -0.942598 0 0.867757 0.496989 
0.630613 10.1888 -0.942598 0 0.867757 0.496989 
0.630613 10.312 -1.15761 0 0.867758 0.496987 
0.630613 10.0657 -0.727587 0 0.542203 0.840247 
0.630613 11.2424 -1.68537 0 0.141422 0.989949 
0.315306 11.2424 -1.68537 0 0.141422 0.989949 
0.630613 10.5583 -1.58763 0 0.503382 0.864064 
0.630613 10.9003 -1.6365 0 0.141422 0.989949 
0.315306 10.9003 -1.6365 0 0.141422 0.989949 
0.630613 -1.66224 -0.928804 0 0.234615 0.972088 
0.630613 -1.36725 -1 0 0.146797 0.989167 
0.315307 -1.36725 -1 0 0.146812 0.989164 
0.630613 11.9265 -1.7831 0 0.141421 0.98995 
0.312859 1 -0.916526 0 1 0 
0.639258 1 -0.916526 0 1 0 
0.312859 1 -1 0 0.338689 0.940898 
0.314083 -1.18362 -1 0 0 1 
0.634936 -1.18362 -1 0 0 1 
0.314695 1.69766 -1 0 0 1 
0.632775 1.69766 -1 0 0 1 
0.630613 1.93022 -1 0 -0.368859 0.929485 
0.315307 1.93022 -1 0 -0.377434 0.926037 
0.312859 1 0.56111 0 1 0 
0.639258 1 0.56111 0 1 0 
0.639258 1 0.414813 0 1 0 
0.312859 1 0.414813 0 1 0 
0.312859 1 -0.020242 0 1 0 
0.639258 1 -0.020242 0 1 0 
0.639258 1 -0.16526 0 1 0 
0.312859 1 -0.16526 0 1 0 
0.312859 1 -0.540893 0 1 0 
0.639258 1 -0.540893 0 1 0 
0.639258 1 -0.666104 0 1 0 
0.312859 1 -0.666104 0 1 0 
1.46449 4.17746 -0.297564 0 0 1 
1.7535 4.17746 -0.297564 0 0 1 
1.46449 3.69187 -0.297564 0 0 1 
1.7535 3.69187 -0.297564 0 0 1 
1.46449 -1.95723 -0.857607 0 0.234615 0.972088 
1.7535 -1.95723 -0.857607 0 0.234615 0.972088 
1.7535 -1.66224 -0.928804 0 0.234615 0.972088 
1.46449 -1.66224 -0.928804 0 0.234615 0.972088 
1.46449 -3.84201 -1 0 0 1 
1.7535 -3.84201 -1 0 0 1 
1.46449 -4.11569 -1 0 0 1 
1.7535 -4.11569 -1 0 0 1 
1.46449 -2.80249 -0.786411 0 -0.268642 0.96324 
1.7535 -2.80249 -0.786411 0 -0.268642 0.96324 
1.46449 -3.05777 -0.857607 0 -0.268642 0.96324 
1.7535 -3.05777 -0.857607 0 -0.268642 0.96324 
1.46449 2.52308 -0.473173 0 -0.664248 0.747512 
1.7535 2.52308 -0.473173 0 -0.664248 0.747513 
1.7535 2.7207 -0.297564 0 -0.248944 0.968518 
1.46449 2.32546 -0.648782 0 -0.664248 0.747513 
1.7535 2.32546 -0.648782 0 -0.664248 0.747513 
1.46449 5.38431 1.12738 0 -0.892213 0.451614 
1.7535 5.38431 1.12738 0 -0.892213 0.451614 
1.46449 5.14389 0.652397 0 -0.892214 0.451614 
1.7535 5.14389 0.652397 0 -0.892213 0.451614 
1.46449 7.34287 1.63754 0 -0.0204728 0.99979 
1.46449 7.91558 1.64927 0 0.538514 0.842617 
1.46449 6.77016 1.62581 0 -0.0204728 0.99979 
1.7535 6.77016 1.62581 0 -0.0204728 0.99979 
1.7535 7.34287 1.63754 0 -0.0204728 0.99979 
1.7535 8.53716 0.118777 0 0.926505 0.376282 
1.7535 8.74435 -0.391387 0 0.741593 0.67085 
1.46449 8.74435 -0.391387 0 0.741594 0.670849 
1.46449 8.32997 0.628941 0 0.926505 0.376282 
1.46449 8.53716 0.118777 0 0.926505 0.376282 
1.46449 9.73536 -0.643537 0 0.246581 0.969122 
1.7535 9.73536 -0.643537 0 0.246581 0.969122 
1.7535 10.0657 -0.727587 0 0.55054 0.834809 
1.46449 10.0657 -0.727587 0 0.55054 0.834809 
1.46449 9.40502 -0.559487 0 0.246581 0.969122 
1.7535 9.40502 -0.559487 0 0.246581 0.969122 
1.46449 10.4351 -1.37262 0 0.867757 0.496989 
1.7535 10.4351 -1.37262 0 0.867757 0.496989 
1.7535 10.5583 -1.58763 0 0.49338 0.869814 
1.46449 10.5583 -1.58763 0 0.49338 0.869814 
1.46449 11.2424 -1.68537 0 0.141422 0.989949 
1.7535 11.2424 -1.68537 0 0.141422 0.989949 
1.7535 11.5845 -1.73423 0 0.141421 0.98995 
1.46449 11.5845 -1.73423 0 0.141421 0.98995 
1.46449 3.20629 -0.297564 0 0 1 
1.7535 3.20629 -0.297564 0 0 1 
1.46449 2.7207 -0.297564 0 -0.248944 0.968518 
1.46449 -2.25222 -0.786411 0 0.234615 0.972088 
1.7535 -2.25222 -0.786411 0 0.234615 0.972088 
1.46449 -2.54721 -0.715214 0 1.24931e-07 1 
1.7535 -2.54721 -0.715214 0 -1.40547e-07 1 
1.46449 -4.38937 -1 0 0 1 
1.7535 -4.38937 -1 0 0 1 
1.46449 -4.66304 -1 0 0 1 
1.7535 -4.66304 -1 0 0 1 
1.46449 -3.31305 -0.928804 0 -0.268642 0.96324 
1.7535 -3.31305 -0.928804 0 -0.268642 0.96324 
1.46449 -3.56834 -1 0 -0.133394 0.991063 
1.7535 -3.56834 -1 0 -0.133394 0.991063 
1.46449 2.12784 -0.824391 0 -0.664248 0.747513 
1.7535 2.12784 -0.824391 0 -0.664248 0.747513 
1.46449 4.66304 -0.297564 0 -0.547478 0.83682 
1.7535 4.66304 -0.297564 0 -0.547477 0.836821 
1.46449 6.19744 1.61408 0 -0.0204737 0.99979 
1.7535 6.19744 1.61408 0 -0.0204737 0.99979 
1.7535 5.62473 1.60236 0 -0.513586 0.858038 
1.46449 8.12277 1.1391 0 0.926505 0.376282 
1.7535 8.12277 1.1391 0 0.926505 0.376282 
1.7535 8.32997 0.628941 0 0.926505 0.376282 
1.7535 7.91558 1.64927 0 0.538514 0.842617 
1.46449 9.07469 -0.475437 0 0.246582 0.969122 
1.7535 9.07469 -0.475437 0 0.246582 0.969122 
1.46449 10.1888 -0.942598 0 0.867757 0.496989 
1.7535 10.1888 -0.942598 0 0.867757 0.496989 
1.7535 10.312 -1.15761 0 0.867758 0.496987 
1.46449 10.312 -1.15761 0 0.867758 0.496987 
1.46449 10.9003 -1.6365 0 0.141422 0.989949 
1.7535 10.9003 -1.6365 0 0.141422 0.989949 
1.7535 -1.36725 -1 0 0.146813 0.989164 
1.46449 -1.36725 -1 0 0.146812 0.989164 
1.7535 11.9265 -1.7831 0 0.141421 0.98995 
1.46449 11.9265 -1.7831 0 0.141421 0.98995 
1.50247 1 -0.916526 0 1 0 
1.80165 1 -0.916526 0 1 0 
1.80165 1 -1 0 0.33869 0.940898 
1.50247 1 -1 0 0.338689 0.940898 
1.48348 -1.18362 -1 0 0 1 
1.77758 -1.18362 -1 0 0 1 
1.47399 1.69766 -1 0 0 1 
1.76554 1.69766 -1 0 0 1 
1.7535 1.93022 -1 0 -0.377434 0.926037 
1.46449 1.93022 -1 0 -0.377434 0.926036 
1.50247 1 0.56111 0 1 0 
1.80165 1 0.56111 0 1 0 
1.80165 1 0.414813 0 1 0 
1.50247 1 0.414813 0 1 0 
1.50247 1 -0.020242 0 1 0 
1.80165 1 -0.020242 0 1 0 
1.80165 1 -0.16526 0 1 0 
1.50247 1 -0.16526 0 1 0 
1.50247 1 -0.540893 0 1 0 
1.80165 1 -0.540893 0 1 0 
1.80165 1 -0.666104 0 1 0 
1.50247 1 -0.666104 0 1 0 
2.10082 0.75 1.20355 0 0.631394 0.775462 
1.80165 0.75 1.20355 0 0.631394 0.775462 
2.10082 -1 -0.916526 0 -1 0 
1.80165 -1 -0.916526 0 -1 0 
2.10082 0.25 1.61066 0 0.631393 0.775463 
2.10082 0.5 1.40711 0 0.631394 0.775462 
1.80165 0.5 1.40711 0 0.631394 0.775462 
1.80165 0.25 1.61066 0 0.631393 0.775463 
2.10082 -0.75 1.20355 0 -0.631394 0.775462 
2.10082 -0.5 1.40711 0 -0.631394 0.775462 
1.80165 -0.5 1.40711 0 -0.631394 0.775462 
1.80165 -0.75 1.20355 0 -0.631394 0.775462 
2.10082 -1 0.56111 0 -1 0 
1.80165 -1 0.56111 0 -1 0 
1.80165 -1 0.414813 0 -1 0 
2.10082 -1 0.414813 0 -1 0 
2.10082 -1 -0.020242 0 -1 0 
1.80165 -1 -0.020242 0 -1 0 
1.80165 -1 -0.16526 0 -1 0 
2.10082 -1 -0.16526 0 -1 0 
2.10082 -1 -0.540893 0 -1 0 
1.80165 -1 -0.540893 0 -1 0 
1.80165 -1 -0.666104 0 -1 0 
2.10082 -1 -0.666104 0 -1 0 
-0.815182 4.17746 -0.297564 0 0 1 
-0.815182 4.66304 -0.297564 0 -0.547477 0.836821 
-0.815182 3.20629 -0.297564 0 0 1 
-0.815182 3.69187 -0.297564 0 0 1 
-0.731693 -1.66224 -0.928804 0 0.234615 0.972089 
-0.487795 -1.66224 -0.928804 0 0.234615 0.972089 
-0.487795 -1.36725 -1 0 0.147033 0.989132 
-0.731693 -1.36725 -1 0 0.147033 0.989132 
-0.731693 -2.25222 -0.786411 0 0.234615 0.972088 
-0.487795 -2.25222 -0.786411 0 0.234615 0.972088 
-0.487795 -1.95723 -0.857607 0 0.234615 0.972089 
-0.731693 -1.95723 -0.857607 0 0.234615 0.972089 
-0.731693 -3.84201 -1 0 0 1 
-0.487795 -3.84201 -1 0 0 1 
-0.487795 -3.56834 -1 0 -0.133394 0.991063 
-0.731693 -3.56834 -1 0 -0.133394 0.991063 
-0.731693 -4.38937 -1 0 0 1 
-0.487795 -4.38937 -1 0 0 1 
-0.487795 -4.11569 -1 0 0 1 
-0.731693 -4.11569 -1 0 0 1 
-0.731693 -2.80249 -0.786411 0 -0.268642 0.96324 
-0.487795 -2.80249 -0.786411 0 -0.268642 0.96324 
-0.731693 -3.31305 -0.928804 0 -0.268643 0.96324 
-0.487795 -3.31305 -0.928804 0 -0.268642 0.96324 
-0.487795 -3.05777 -0.857607 0 -0.268642 0.96324 
-0.731693 -3.05777 -0.857607 0 -0.268642 0.96324 
-0.815182 2.52308 -0.473173 0 -0.664248 0.747513 
-0.543455 2.7207 -0.297564 0 -0.248944 0.968518 
-0.815182 2.12784 -0.824391 0 -0.664248 0.747513 
-0.543455 2.12784 -0.824391 0 -0.664248 0.747513 
-0.543455 2.32546 -0.648782 0 -0.664248 0.747513 
-0.815182 2.32546 -0.648782 0 -0.664247 0.747513 
-0.815182 5.38431 1.12738 0 -0.892213 0.451614 
-0.543455 5.38431 1.12738 0 -0.892213 0.451614 
-0.543455 5.62473 1.60236 0 -0.513585 0.858038 
-0.815182 5.62473 1.60236 0 -0.513586 0.858038 
-0.543455 5.14389 0.652397 0 -0.892214 0.451614 
-0.815182 5.14389 0.652397 0 -0.892214 0.451614 
-0.543455 7.34287 1.63754 0 -0.0204728 0.99979 
-0.815182 6.19744 1.61408 0 -0.0204737 0.99979 
-0.543455 6.77016 1.62581 0 -0.0204728 0.99979 
-0.815182 6.77016 1.62581 0 -0.0204728 0.99979 
-0.815182 8.53716 0.118777 0 0.926505 0.376282 
-0.543455 8.53716 0.118777 0 0.926505 0.376282 
-0.815182 8.12277 1.1391 0 0.926505 0.376282 
-0.543455 8.12277 1.1391 0 0.926505 0.376282 
-0.543455 8.32997 0.628941 0 0.926505 0.376282 
-0.815182 9.73536 -0.643537 0 0.246581 0.969122 
-0.543455 9.73536 -0.643537 0 0.246581 0.969122 
-0.543455 9.07469 -0.475437 0 0.246582 0.969122 
-0.543455 9.40502 -0.559487 0 0.246581 0.969122 
-0.815182 9.40502 -0.559487 0 0.246581 0.969122 
-0.815182 10.4351 -1.37262 0 0.867757 0.496989 
-0.543455 10.4351 -1.37262 0 0.867757 0.496989 
-0.815182 10.1888 -0.942598 0 0.867757 0.496989 
-0.543455 10.1888 -0.942598 0 0.867757 0.496989 
-0.543455 10.312 -1.15761 0 0.867758 0.496987 
-0.815182 2.7207 -0.297564 0 -0.248944 0.968518 
-0.731693 -2.54721 -0.715214 0 1.89674e-07 1 
-0.487795 -2.54721 -0.715214 0 -1.85048e-07 1 
-0.731693 -4.66304 -1 0 0 1 
-0.487795 -4.66304 -1 0 0 1 
-0.543455 2.52308 -0.473173 0 -0.664248 0.747513 
-0.543455 4.66304 -0.297564 0 -0.547478 0.83682 
-0.543455 4.90346 0.177416 0 -0.892213 0.451614 
-0.815182 4.90346 0.177416 0 -0.892214 0.451614 
-0.815182 7.34287 1.63754 0 -0.0204728 0.99979 
-0.543455 6.19744 1.61408 0 -0.0204737 0.99979 
-0.815182 8.32997 0.628941 0 0.926505 0.376282 
-0.815182 7.91558 1.64927 0 0.538513 0.842617 
-0.543455 7.91558 1.64927 0 0.538514 0.842617 
-0.815182 8.74435 -0.391387 0 0.741594 0.670849 
-0.543455 8.74435 -0.391387 0 0.741594 0.670849 
-0.815182 10.312 -1.15761 0 0.867758 0.496987 
-0.815182 10.0657 -0.727587 0 0.55054 0.834809 
-0.543455 10.0657 -0.727587 0 0.55054 0.834809 
-0.815182 11.2424 -1.68537 0 0.141422 0.989949 
-0.543455 11.2424 -1.68537 0 0.141422 0.989949 
-0.543455 11.5845 -1.73423 0 0.141421 0.98995 
-0.815182 11.5845 -1.73423 0 0.14142 0.98995 
-0.543455 10.5583 -1.58763 0 0.49338 0.869814 
-0.543455 10.9003 -1.6365 0 0.141422 0.989949 
-0.50677 1 1 0 0.813616 0.581402 
-0.50677 0.75 1.20355 0 0.631394 0.775462 
-0.753385 1 -0.916526 0 1 0 
-0.50677 1 -0.916526 0 1 0 
-0.260154 -1 -0.916526 0 -1 0 
-0.50677 -1 -0.916526 0 -1 0 
-0.50677 -1 -1 0 -0.414471 0.910063 
-0.260154 -1 -1 0 -0.414471 0.910063 
-0.543455 11.9265 -1.7831 0 0.141421 0.98995 
-0.815182 11.9265 -1.7831 0 0.141421 0.98995 
-0.815182 1.93022 -1 0 -0.3793 0.925274 
-0.543455 1.93022 -1 0 -0.3793 0.925274 
-0.260154 0 1.81421 0 5.53874e-07 1 
-0.268834 1.69766 -1 0 0 1 
-0.534283 1.69766 -1 0 0 1 
-0.252026 -1.18362 -1 0 0 1 
-0.497282 -1.18362 -1 0 0 1 
-0.243898 -1.36725 -1 0 0.147033 0.989132 
-0.260154 0.25 1.61066 0 0.631393 0.775463 
-0.260154 0.5 1.40711 0 0.631394 0.775462 
-0.50677 0.5 1.40711 0 0.631394 0.775462 
-0.260154 -0.75 1.20355 0 -0.631394 0.775462 
-0.260154 -0.5 1.40711 0 -0.631394 0.775462 
-0.50677 -0.5 1.40711 0 -0.631394 0.775462 
-0.50677 -0.75 1.20355 0 -0.631394 0.775462 
-0.753385 1 0.56111 0 1 0 
-0.50677 1 0.56111 0 1 0 
-0.50677 1 0.414813 0 1 0 
-0.753385 1 0.414813 0 1 0 
-0.260154 -1 0.56111 0 -1 0 
-0.50677 -1 0.56111 0 -1 0 
-0.50677 -1 0.414813 0 -1 0 
-0.260154 -1 0.414813 0 -1 0 
-0.753385 1 -0.020242 0 1 0 
-0.50677 1 -0.020242 0 1 0 
-0.50677 1 -0.16526 0 1 0 
-0.753385 1 -0.16526 0 1 0 
-0.260154 -1 -0.020242 0 -1 0 
-0.50677 -1 -0.020242 0 -1 0 
-0.50677 -1 -0.16526 0 -1 0 
-0.260154 -1 -0.16526 0 -1 0 
-0.753385 1 -0.540893 0 1 0 
-0.50677 1 -0.540893 0 1 0 
-0.50677 1 -0.666104 0 1 0 
-0.753385 1 -0.666104 0 1 0 
-0.260154 -1 -0.540893 0 -1 0 
-0.50677 -1 -0.540893 0 -1 0 
-0.50677 -1 -0.666104 0 -1 0 
-0.260154 -1 -0.666104 0 -1 0 
0.03974 3.67802 0.260212 0.587791 0.809013 0 
0.064301 3.64421 0.33715 0.324721 0.0440668 -0.944783 
0.064301 3.64421 0.260212 0.951056 0.30902 0 
0.064301 3.60243 0.260212 0.951055 -0.309021 0 
0.064301 3.60243 0.33715 0.288606 -0.155216 -0.944783 
0.03974 3.56862 0.260212 0.587781 -0.80902 0 
0 3.55571 0.260212 0 -1 0 
0 3.55571 0.33715 -0.0584346 -0.322445 -0.944783 
-0.03974 3.56862 0.260212 -0.587781 -0.80902 0 
-0.064301 3.60243 0.260212 -0.951055 -0.309021 0 
-0.064301 3.60243 0.33715 -0.324721 -0.0440668 -0.944783 
-0.064301 3.64421 0.33715 -0.288606 0.155216 -0.944783 
-0.064301 3.64421 0.260212 -0.951056 0.30902 0 
-0.03974 3.67802 0.260212 -0.587791 0.809013 0 
0 3.69093 0.260212 0 1 0 
0 3.69093 0.33715 0.0584343 0.322445 -0.944783 
0.03974 3.67802 0.33715 0.236804 0.226516 -0.944783 
0.271095 3.99645 0.445319 0.25832 0.299486 -0.918466 
0.438641 3.76584 0.445319 0.385018 0.0904523 -0.918466 
0.03974 3.56862 0.33715 0.142253 -0.295211 -0.944783 
0.271095 3.25019 0.445319 0.205003 -0.338223 -0.918466 
-0.271095 3.25019 0.445319 -0.258319 -0.299485 -0.918466 
-0.03974 3.56862 0.33715 -0.236802 -0.226517 -0.944783 
-0.438641 3.4808 0.445319 -0.385018 -0.0904523 -0.918466 
-0.03974 3.67802 0.33715 -0.142255 0.295211 -0.944783 
0.398827 4.17226 0.576127 0.460402 0.585205 -0.667507 
0.438641 3.4808 0.445319 0.364653 -0.15313 -0.918466 
0 3.16211 0.445319 -0.0329519 -0.394125 -0.918466 
-0.438641 3.76584 0.445319 -0.364653 0.15313 -0.918466 
-0.645317 3.833 0.576127 -0.698834 0.25703 -0.667507 
-0.271095 3.99645 0.445319 -0.205002 0.338223 -0.918466 
-0.398828 4.17226 0.576127 -0.41429 0.618707 -0.667507 
0 4.08454 0.445319 0.0329518 0.394125 -0.918466 
0 4.30185 0.576127 0.0284986 0.744058 -0.667507 
0.645317 3.833 0.576127 0.716448 0.202823 -0.667507 
0.713527 3.85516 0.752215 0.921481 0.312987 -0.230025 
0.713527 3.39148 0.752215 0.929463 -0.288422 -0.230024 
0.645317 3.41365 0.576127 0.698835 -0.25703 -0.667507 
0.398828 3.07438 0.576127 0.414291 -0.618707 -0.667506 
0.440984 3.01636 0.752215 0.582421 -0.779663 -0.230024 
0 2.94479 0.576127 -0.0284983 -0.744059 -0.667506 
0 2.87307 0.752215 0.0129144 -0.973099 -0.230023 
-0.398828 3.07438 0.576127 -0.460403 -0.585205 -0.667506 
-0.713527 3.39148 0.752215 -0.921482 -0.312986 -0.230024 
-0.645317 3.41365 0.576127 -0.716448 -0.202823 -0.667507 
-0.440984 4.23028 0.752215 -0.582421 0.779663 -0.230024 
0 4.37357 0.875477 0.0180253 0.962432 0.270923 
0.440984 4.23028 0.875477 0.580286 0.768029 0.270923 
0.440984 4.23028 0.752215 0.561525 0.794845 -0.230025 
0.713527 3.85516 0.875477 0.920897 0.280264 0.270924 
0.440984 3.01636 0.875477 0.551121 -0.789219 0.270923 
-0.440984 3.01636 0.875477 -0.580287 -0.768029 0.270923 
-0.440984 3.01636 0.752215 -0.561526 -0.794845 -0.230022 
-0.713527 3.85516 0.752215 -0.929463 0.288422 -0.230024 
-0.440984 4.23028 0.875477 -0.55112 0.78922 0.270923 
0 4.37357 0.752215 -0.0129142 0.973099 -0.230024 
0.38599 4.15459 1.07924 0.373197 0.588693 0.717052 
0.624545 3.82625 1.07924 0.647948 0.256903 0.717052 
0.713527 3.39148 0.875477 0.909757 -0.314552 0.270923 
0.624545 3.42039 1.07924 0.675205 -0.173016 0.717052 
0 2.87307 0.875477 -0.0180257 -0.962432 0.270923 
0 2.96663 1.07924 0.0441027 -0.695623 0.717052 
-0.713527 3.39148 0.875477 -0.920898 -0.280264 0.270924 
-0.713527 3.85516 0.875477 -0.909757 0.314551 0.270924 
-0.624545 3.82625 1.07924 -0.675205 0.173015 0.717053 
-0.38599 4.15459 1.07924 -0.444556 0.536848 0.717053 
0.248196 3.96493 1.17231 0.132955 0.229135 0.964272 
0.38599 3.09205 1.07924 0.444557 -0.536849 0.717052 
0 3.20106 1.17231 0.027119 -0.263524 0.964272 
-0.38599 3.09205 1.07924 -0.373197 -0.588694 0.717052 
-0.248196 3.28171 1.17231 -0.132956 -0.229135 0.964272 
-0.624545 3.42039 1.07924 -0.647949 -0.256903 0.717052 
-0.248196 3.96493 1.17231 -0.176835 0.197255 0.964272 
0 4.04558 1.17231 -0.0271187 0.263524 0.964272 
0 4.28001 1.07924 -0.0441023 0.695623 0.717052 
0 3.71974 1.21508 -0.0285169 0.127848 0.991384 
0.056676 3.70133 1.21508 0.0466058 0.107566 0.993105 
0.40159 3.7538 1.17231 0.242245 0.107225 0.964272 
0.091703 3.59352 1.21508 0.109579 -0.0104081 0.993923 
0.40159 3.49284 1.17231 0.259006 -0.0556417 0.964272 
0.248196 3.28171 1.17231 0.176835 -0.197255 0.964272 
0 3.5269 1.21508 0.0285168 -0.127849 0.991384 
-0.056676 3.54531 1.21508 -0.0466057 -0.107566 0.993105 
-0.40159 3.49284 1.17231 -0.242245 -0.107225 0.964272 
-0.40159 3.7538 1.17231 -0.259006 0.0556417 0.964272 
-0.091703 3.65312 1.21508 -0.109579 0.0104081 0.993923 
-0.056676 3.70133 1.21508 -0.094005 0.0829523 0.99211 
0.091703 3.65312 1.21508 0.0913219 0.0539518 0.994359 
-0.091703 3.59352 1.21508 -0.0913219 -0.0539518 0.994359 
0.056676 3.54531 1.21508 0.094005 -0.0829523 0.99211 
-1.98007 -1.66224 -0.928804 0 0.234615 0.972088 
-1.62862 -1.36725 -1 0 0.144892 0.989447 
-1.98007 -1.95723 -0.857607 0 0.234615 0.972088 
-1.98007 -3.84201 -1 0 0 1 
-1.62862 -3.84201 -1 0 0 1 
-1.98007 -3.56834 -1 0 -0.133394 0.991063 
-1.98007 -4.38937 -1 0 0 1 
-1.62862 -4.38937 -1 0 0 1 
-1.62862 -4.11569 -1 0 0 1 
-1.98007 -4.11569 -1 0 0 1 
-1.98007 -2.80249 -0.786411 0 -0.268642 0.96324 
-1.62862 -2.80249 -0.786411 0 -0.268642 0.96324 
-1.62862 -2.54721 -0.715214 0 -0.00317586 0.999995 
-1.98007 -3.31305 -0.928804 0 -0.268642 0.96324 
-1.62862 -3.31305 -0.928804 0 -0.268642 0.96324 
-1.62862 -3.05777 -0.857607 0 -0.268642 0.96324 
-1.98007 -3.05777 -0.857607 0 -0.268642 0.96324 
-1.62862 -1.66224 -0.928804 0 0.234615 0.972089 
-1.98007 -2.54721 -0.715214 0 -1.60522e-08 1 
-1.62862 -2.25222 -0.786411 0 0.234615 0.972088 
-1.98007 -4.66304 -1 0 0 1 
-1.62862 -4.66304 -1 0 0 1 
-1.62862 -3.56834 -1 0 -0.131732 0.991285 
-2.00892 4.17746 -0.297564 0 0 1 
-1.68632 4.17746 -0.297564 0 0 1 
-2.00892 4.66304 -0.297564 0 -0.547478 0.83682 
-2.00892 3.20629 -0.297564 0 0 1 
-1.68632 3.20629 -0.297564 0 0 1 
-1.68632 3.69187 -0.297564 0 0 1 
-2.00892 3.69187 -0.297564 0 0 1 
-2.00892 2.52308 -0.473173 0 -0.664248 0.747512 
-1.68632 2.52308 -0.473173 0 -0.664248 0.747513 
-2.00892 2.7207 -0.297564 0 -0.248944 0.968518 
-2.00892 2.12784 -0.824391 0 -0.664248 0.747513 
-1.68632 2.12784 -0.824391 0 -0.664248 0.747513 
-2.00892 2.32546 -0.648782 0 -0.664248 0.747513 
-2.00892 5.38431 1.12738 0 -0.892213 0.451614 
-1.68632 5.38431 1.12738 0 -0.892213 0.451614 
-1.68632 5.62473 1.60236 0 -0.519884 0.854237 
-2.00892 5.62473 1.60236 0 -0.513585 0.858038 
-2.00892 4.90346 0.177416 0 -0.892213 0.451614 
-1.68632 4.90346 0.177416 0 -0.892214 0.451614 
-2.00892 7.34287 1.63754 0 -0.0204728 0.99979 
-1.68632 7.34287 1.63754 0 -0.0204728 0.99979 
-1.68632 7.91558 1.64927 0 0.53139 0.847127 
-1.68632 6.19744 1.61408 0 -0.0204737 0.99979 
-1.68632 6.77016 1.62581 0 -0.0204728 0.99979 
-2.00892 6.77016 1.62581 0 -0.0204728 0.99979 
-2.00892 8.53716 0.118777 0 0.926505 0.376282 
-1.68632 8.53716 0.118777 0 0.926505 0.376282 
-1.68632 8.74435 -0.391387 0 0.74544 0.666573 
-2.00892 8.12277 1.1391 0 0.926505 0.376281 
-1.68632 8.12277 1.1391 0 0.926505 0.376282 
-1.68632 8.32997 0.628941 0 0.926505 0.376282 
-2.00892 8.32997 0.628941 0 0.926505 0.376282 
-2.00892 9.73536 -0.643537 0 0.246581 0.969122 
-1.68632 9.73536 -0.643537 0 0.246581 0.969122 
-1.68632 10.0657 -0.727587 0 0.546333 0.837568 
-2.00892 9.07469 -0.475437 0 0.246582 0.969122 
-1.68632 9.07469 -0.475437 0 0.246582 0.969122 
-1.68632 9.40502 -0.559487 0 0.246581 0.969122 
-2.00892 9.40502 -0.559487 0 0.246581 0.969122 
-2.00892 10.4351 -1.37262 0 0.867757 0.496989 
-1.68632 10.4351 -1.37262 0 0.867757 0.496989 
-1.68632 10.5583 -1.58763 0 0.49842 0.866935 
-2.00892 10.5583 -1.58763 0 0.49338 0.869814 
-2.00892 10.1888 -0.942598 0 0.867757 0.496989 
-1.68632 10.1888 -0.942598 0 0.867757 0.496989 
-1.68632 10.312 -1.15761 0 0.867758 0.496987 
-2.00892 10.9003 -1.6365 0 0.141422 0.989949 
-1.68632 2.7207 -0.297564 0 -0.253029 0.967459 
-1.68632 2.32546 -0.648782 0 -0.664248 0.747513 
-2.00892 5.14389 0.652397 0 -0.892214 0.451614 
-1.68632 5.14389 0.652397 0 -0.892214 0.451614 
-2.00892 6.19744 1.61408 0 -0.0204737 0.99979 
-2.00892 7.91558 1.64927 0 0.538514 0.842617 
-2.00892 8.74435 -0.391387 0 0.741593 0.67085 
-2.00892 10.312 -1.15761 0 0.867758 0.496987 
-2.00892 10.0657 -0.727587 0 0.55054 0.834809 
-2.00892 11.2424 -1.68537 0 0.141422 0.989949 
-1.68632 11.2424 -1.68537 0 0.141422 0.989949 
-1.68632 11.5845 -1.73423 0 0.141421 0.98995 
-2.00892 11.5845 -1.73423 0 0.14142 0.98995 
-1.68632 10.9003 -1.6365 0 0.141422 0.989949 
-1.68632 11.9265 -1.7831 0 0.141421 0.98995 
-2.00892 11.9265 -1.7831 0 0.141421 0.98995 
-1.99203 1.29136 -1 0 0 1 
-1.64127 1.05098 -1 0 0 1 
-1.65253 1.27079 -1 0 0 1 
-1.32063 0.786062 -1 0 0 1 
-1.64127 0.822125 -1 0 0 1 
-1.32063 -0.721456 -1 0 0 1 
-1.64127 -0.692912 -1 0 0 1 
-1.64127 -0.969071 -1 0 0 1 
-1.98323 -1.15984 -1 0 0 1 
-1.63494 -1.16816 -1 0 0 1 
-1.32063 0.307209 -1 0 0 1 
-1.32063 0.546636 -1 0 0 1 
-1.64127 0.593271 -1 0 0 1 
-1.64127 0.364418 -1 0 0 1 
-1.32063 -0.195297 -1 0 0 1 
-1.64127 -0.140594 -1 0 0 1 
-1.64127 -0.416753 -1 0 0 1 
-1.32063 -0.458377 -1 0 0 1 
-3.78872 4.17746 -0.297564 0 0 1 
-3.49728 4.17746 -0.297564 0 0 1 
-3.78872 4.66304 -0.297564 0 -0.547477 0.83682 
-3.78872 3.69187 -0.297564 0 0 1 
-3.49728 3.69187 -0.297564 0 0 1 
-3.78872 -2.25222 -0.786411 0 0.234615 0.972088 
-3.49728 -1.95723 -0.857607 0 0.234615 0.972089 
-3.78872 -1.95723 -0.857607 0 0.234615 0.972089 
-3.78872 -3.31305 -0.928804 0 -0.268642 0.96324 
-3.49728 -3.31305 -0.928804 0 -0.268642 0.96324 
-3.49728 -3.05777 -0.857607 0 -0.268642 0.96324 
-3.78872 -3.05777 -0.857607 0 -0.268642 0.96324 
-3.78872 -3.56834 -1 0 -0.133394 0.991063 
-3.78872 2.52308 -0.473173 0 -0.664248 0.747513 
-3.49728 2.52308 -0.473173 0 -0.664248 0.747513 
-3.49728 2.7207 -0.297564 0 -0.24624 0.969209 
-3.78872 2.7207 -0.297564 0 -0.248944 0.968518 
-3.78872 8.12277 1.1391 0 0.926505 0.376282 
-3.49728 8.12277 1.1391 0 0.926505 0.376281 
-3.49728 8.32997 0.628941 0 0.926505 0.376282 
-3.78872 8.32997 0.628941 0 0.926505 0.376282 
-3.78872 9.40502 -0.559487 0 0.246581 0.969122 
-3.49728 9.40502 -0.559487 0 0.246581 0.969122 
-3.49728 9.73536 -0.643537 0 0.246581 0.969122 
-3.78872 9.73536 -0.643537 0 0.246581 0.969122 
-3.78872 9.07469 -0.475437 0 0.246582 0.969122 
-3.49728 9.07469 -0.475437 0 0.246582 0.969122 
-3.78872 11.5845 -1.73423 0 0.141421 0.98995 
-3.49728 11.5845 -1.73423 0 0.14142 0.98995 
-3.49728 11.9265 -1.7831 0 0.141421 0.98995 
-3.78872 11.9265 -1.7831 0 0.141421 0.98995 
-3.78872 3.20629 -0.297564 0 0 1 
-3.49728 3.20629 -0.297564 0 0 1 
-3.78872 -1.66224 -0.928804 0 0.234615 0.972089 
-3.49728 -1.66224 -0.928804 0 0.234615 0.972089 
-3.78872 -1.36725 -1 0 0.138067 0.990423 
-3.49728 -2.54721 -0.715214 0 0.00211159 0.999998 
-3.49728 -2.25222 -0.786411 0 0.234615 0.972088 
-3.78872 -3.84201 -1 0 0 1 
-3.49728 -3.84201 -1 0 0 1 
-3.49728 -3.56834 -1 0 -0.134501 0.990914 
-3.78872 -4.11569 -1 0 0 1 
-3.49728 -4.11569 -1 0 0 1 
-3.78872 -4.38937 -1 0 0 1 
-3.49728 -4.38937 -1 0 0 1 
-3.78872 -4.66304 -1 0 0 1 
-3.49728 -4.66304 -1 0 0 1 
-3.78872 -2.80249 -0.786411 0 -0.268642 0.96324 
-3.49728 -2.80249 -0.786411 0 -0.268642 0.96324 
-3.78872 -2.54721 -0.715214 0 0 1 
-3.78872 2.32546 -0.648782 0 -0.664248 0.747513 
-3.78872 2.12784 -0.824391 0 -0.664248 0.747513 
-3.49728 2.12784 -0.824391 0 -0.664248 0.747513 
-3.49728 5.62473 1.60236 0 -0.509381 0.860541 
-3.78872 5.62473 1.60236 0 -0.513586 0.858038 
-3.49728 5.38431 1.12738 0 -0.892213 0.451614 
